0.5129282475 0.6806360483 -0.1244993284
0.5097236633 0.5471337438 -0.2144075483
0.5107558370 0.5858377814 -0.1189861149
0.4641379416 0.4045151174 -0.1505520046
0.5069332719 0.5032951832 -0.2256372571
0.5031903386 0.4449882507 -0.2057574689
0.4935800135 0.3017749190 -0.0834424496
0.2109338939 0.3002454638 0.0741323754
0.4848566353 0.1716520190 -0.0439593606
0.4810146987 0.1109977067 -0.0459651612
0.4711511433 -0.0630566180 0.0120123858
0.5138021111 0.6922445297 -0.1188269481
0.5147159100 0.7038810253 -0.1060457155
0.5161845684 0.7122692466 -0.0881661251
0.5164107680 0.7122433186 -0.0994691402
0.5176481605 0.7243337035 -0.1072985902
0.5190655589 0.7402634025 -0.1201835126
0.5209816694 0.7588474751 -0.1220324039
0.5255451202 0.8073754311 -0.0953513160
0.5110759139 0.5687786341 -0.1950520277
0.4680745900 0.5706195235 -0.1410012692
0.0579584837 0.1572929621 0.2829228640
0.3168475926 0.3275386095 0.0274354927
0.2790872455 0.3335092366 0.0315899178
0.2424089611 0.3349812031 0.0442312621
0.1943390965 0.3157956302 0.0797995478
0.3495849967 0.3165922761 0.0340468474
0.2566347122 0.2046954632 0.0220558457
0.3009241819 0.2076782882 0.0222947914
0.2154104710 0.2149126232 0.0359421261
0.1891663671 0.2359721959 0.0515805781
0.1611762047 0.3449603915 0.0990192816
0.3795843422 0.8828946352 -0.0427585728
0.1963768601 0.2912859321 0.0887763426
0.0483940244 0.3374787271 0.2806296349
0.1186415851 0.3135905266 0.1435028762
0.2934719920 0.5128751397 -0.0268341899
0.4606587589 0.6777464151 -0.1188651249
0.4684964120 0.7062667608 -0.0995859951
0.4109682441 0.6955595016 -0.0949896425
0.3770254850 0.7135349512 -0.0663274080
0.4284023345 0.7133037448 -0.0830867738
0.3956376314 0.7224010229 -0.0571176708
0.3272792101 0.7593740225 -0.0180747118
0.4736938775 0.5488899350 -0.2105536014
0.4650234580 0.5068577528 -0.2204151005
0.1365457773 0.1860536933 0.0729000047
0.3735848069 0.4031199217 -0.0207527466
0.3686272502 0.5400160551 -0.1112008169
0.3641277552 0.5161911249 -0.0980952531
0.1746208370 0.5118120909 0.0299116224
0.4639406800 0.4521887302 -0.1930313706
0.2200818360 0.1251109242 0.0072294814
0.1699618995 0.1473726332 0.0397372469
0.0868317485 0.0813679993 0.2100639343
0.3927981853 0.1530981064 -0.0316687301
0.3394186199 0.2250525951 0.0323595628
0.2908980846 0.7271283865 -0.0023742404
0.1166475415 0.7122253180 0.3490169644
0.4015268683 0.5626033545 -0.0985125527
0.4370566905 0.5726957321 -0.1031112373
0.3381587863 0.7412179708 -0.0055233054
0.3481485844 0.7388502359 -0.0171207655
0.1508308053 0.1188592911 0.0610697754
0.3665408492 0.5573092699 -0.0908608437
0.2904705405 0.1218437254 -0.0175865814
0.2835378647 0.0857392251 -0.0226869769
0.2347605973 -0.0259531438 0.0612576678
0.1100445092 0.1139846146 0.1251936704
0.2569237947 0.0440295339 0.0182724260
0.1144548059 0.1667690277 0.1091867313
0.0793893337 0.1763725281 0.1904955059
0.4635894597 0.6935288310 -0.1135430261
0.4196921289 0.7052287459 -0.0907490179
0.3860841990 0.7181292772 -0.0649182275
0.4114442766 0.5690820217 -0.0898013115
0.3433099985 0.7400659919 -0.0114294328
0.3656336069 0.7402967215 -0.0411694236
0.3535660803 0.7375049591 -0.0184446368
0.4241312146 0.5505948663 -0.1517791152
0.4035315514 0.7249598503 -0.0508458987
0.4354032278 0.7183876038 -0.0678009018
0.4734290838 0.7142731547 -0.0825085416
0.4712603986 0.8099758029 -0.0913268253
0.4705100656 0.7604008913 -0.1168546528
0.4699780941 0.7418351173 -0.1150487661
0.4709748924 0.7262779474 -0.1011613831
0.4738912284 0.7144632936 -0.0933559239
0.4033476114 0.7247719765 -0.0586590804
0.3976836801 0.7314691544 -0.0669894144
0.3909659386 0.7405033112 -0.0763048828
0.3854902983 0.7515261173 -0.0709104165
0.3316377401 0.6601579785 -0.0518161803
0.0616047680 0.5134712458 0.4266727269
0.5113109350 0.5778553486 -0.1439617723
0.3790269196 0.7309730053 -0.0358804390
0.3728414178 0.7352148890 -0.0410452075
0.4518327713 0.5871182680 -0.1088464186
0.3816961944 0.5795221925 -0.0657450929
0.4446299076 0.5801534653 -0.1061375961
0.3310529292 0.4295622110 -0.0091716154
0.2660388350 0.4600638747 0.0019266468
0.3575823009 0.5344166756 -0.0770750269
0.1409188211 0.0188148022 0.1310359389
0.1650590003 0.0686429441 0.0685860068
0.2063809335 0.0912199616 0.0167856757
0.3663568199 0.7808752060 -0.0460686237
0.3793542981 0.0919012725 -0.0426733121
0.3586116433 0.0366351008 -0.0113861533
0.3417694569 -0.0504153073 0.0203569904
0.2118660510 0.3293017745 0.0629222766
0.1194046140 0.3784489334 0.1195892915
0.3710306287 0.3050914407 0.0405662619
0.1544570625 0.2551510930 0.0874884799
0.4018828869 0.3743121922 -0.0330339558
0.3954889178 0.5246013999 -0.1495752782
0.0786971748 0.4151903391 0.1618701965
0.1434289813 0.4068954587 0.0794437006
0.1914869547 0.4201656878 0.0394474231
0.2670739293 0.4090939760 0.0220374055
0.3236267567 0.3884539306 0.0132534485
0.3655227721 0.3666935861 0.0048038363
0.4543543160 0.3146833777 -0.0684208423
0.0883688331 0.5001857877 0.1431569457
0.1249150038 0.2469269484 0.1088988557
0.4887920618 0.5690377355 -0.1925404519
0.3775071800 0.4459914267 -0.0427475870
0.0421964526 0.3318011463 0.4141356647
0.3969896138 0.3420772552 0.0011103412
0.3538284600 0.5353826880 -0.0391358621
0.1784274280 0.2909824550 0.0966267064
0.3915491700 0.4952969551 -0.1328348368
0.0824636519 0.6115677357 0.3990185261
0.3699926734 0.2903716564 0.0519187786
0.4271802306 0.4690015018 -0.1702612191
0.2004412413 0.8049974442 0.1232472658
0.2127452195 0.8478043079 0.1919658035
0.0603821576 0.5100986958 0.2853716016
0.1482027471 0.7539538741 0.1811972708
0.0625093877 0.2518252134 0.2478645742
0.3751437664 0.9224833250 -0.0222693682
0.4930678606 0.5777173638 -0.1410816163
0.3407420516 0.4784978330 -0.0310452431
0.0870317817 0.3242650628 0.1834194511
0.2470144629 0.3084511161 0.0483248197
0.2780306041 0.3083460033 0.0381088294
0.3587790430 0.7467054129 -0.0344336443
0.1008889377 0.5814642906 0.1478704214
0.4554257393 0.9699031115 -0.0188469775
0.3322742879 0.9271794558 0.0730858594
0.2778207064 0.8955111504 0.1258415878
0.4758301079 0.0300699472 -0.0203827694
0.5398918390 0.9704211354 -0.0323452279
0.3088539839 0.3038380444 0.0366349034
0.3391592503 0.2972154617 0.0426315106
0.3595822453 0.2936040461 0.0516420640
0.0981426537 0.2388851792 0.1507501006
0.3330270052 0.2696894705 0.0382702276
0.2984580994 0.2627846003 0.0330452286
0.2659693062 0.2629984617 0.0353611745
0.2348107994 0.2697238326 0.0451960936
0.2152143419 0.2788307667 0.0571872294
0.0438302755 0.2364380658 0.3586770594
0.2260410786 0.3050878644 0.0621396415
0.5122348666 0.6142712831 -0.1131889522
0.3702878356 0.6368783712 -0.0729452148
0.4021383524 0.5566586256 -0.1116375253
0.4513660967 0.6201226711 -0.1099903062
0.4893401563 0.2399925441 -0.0494971201
0.2593627572 0.8528784513 0.0767306685
0.3153168857 0.8880863190 0.0290344618
0.4490153790 0.9442931414 -0.0666235834
0.1615678370 0.7908592224 0.2745881975
0.3580951989 0.2817915082 0.0468272939
0.4307037890 0.3857956231 -0.0891162679
0.5363245010 0.9435099363 -0.0783139318
0.3893496990 0.9536641836 0.0184485037
0.0788702965 0.5989891887 0.2702880204
0.4355617762 0.7184912562 -0.0775595605
0.4299731255 0.7283877134 -0.0864289626
0.4260512292 0.7411745787 -0.0979911685
0.4241031408 0.7574832439 -0.0965538919
0.4138723612 0.7993090749 -0.0732487366
0.3692705929 0.7312185168 -0.0343620107
0.3602085114 0.7303754687 -0.0342612080
0.3525110781 0.7286794782 -0.0343117230
0.3032917082 0.6913564801 -0.0256590154
0.1500405669 0.6011498570 0.0641637594
0.4287243783 0.3416979313 -0.0475538746
0.3992386162 0.2490871847 0.0261653922
0.3746611178 0.2597122788 0.0414173529
0.3792612255 0.7312752008 -0.0315856040
0.1550513208 0.6975809336 0.1124301925
0.4360437989 0.2429699451 -0.0242703557
0.3953446746 0.8408211470 -0.0572392717
0.4999973774 0.3959037662 -0.1639086455
0.4589024186 0.3621138036 -0.1132541299
0.4970153868 0.3508731723 -0.1223965287
0.4032389522 0.4551844299 -0.0945807174
0.5331407189 0.9032293558 -0.0977416411
0.5290873051 0.8528917432 -0.0957743376
0.4618878365 0.8558641672 -0.0864296034
0.2934932411 0.7780885696 0.0025109772
0.3217349052 0.5686190724 -0.0318644308
0.3406181931 0.8152829409 -0.0269793775
0.2319551706 0.5635502934 -0.0153721534
0.2879960835 0.6094813943 -0.0282262824
0.2021372020 0.6300264001 0.0113503449
0.4519407153 0.9051846266 -0.0848889127
0.3774816394 0.4801804721 -0.0684182793
0.2646827400 0.8092953563 0.0363555923
0.3217454851 0.8483588696 0.0004615756
0.2539343536 0.7322545052 0.0147652486
0.1168899834 0.6498372555 0.1541553140
0.2065953314 0.7393916845 0.0535490625
0.1047208011 0.6807150841 0.2440030724
0.2602552772 0.6615615487 -0.0115028853
0.4050467312 0.4154743850 -0.0639192760
0.4107740223 0.5441187620 -0.1589573175
0.3832103312 0.5539050698 -0.1167497635
0.4281399548 0.5146716237 -0.1850732565
0.3637315929 0.2024066448 0.0167091303
0.2981023788 0.1758382618 0.0126755759
0.2420786470 0.1746678352 0.0167894699
0.1964118183 0.1886671185 0.0333937183
0.1666248441 0.2144240141 0.0574971437
0.1526772976 0.3008644879 0.1136603579
0.0490356982 0.4237387478 0.2849126160
0.1811130047 0.3621224761 0.0755333453
0.2198358476 0.3723574579 0.0501651429
0.2718780041 0.3684306145 0.0328843407
0.3213619590 0.3557034135 0.0232709423
0.3601390123 0.3401830196 0.0252633672
0.3867575228 0.3250256479 0.0230530314
0.0503845215 0.4213327467 0.4344061911
0.3833684325 0.5639503002 -0.0978554562
0.4323650599 0.4257207215 -0.1241752580
0.4418840706 0.5457620621 -0.1906573176
0.4656728208 0.5645502210 -0.1761531979
0.4421870112 0.5526752472 -0.1717405021
0.3950595260 0.5745857954 -0.0859564766
0.4747293293 0.5676212907 -0.1869806498
0.4786082208 0.5759729743 -0.1410185397
0.3849008083 0.2899921536 0.0458278619
0.4074554741 0.2986711264 0.0211163610
0.4204887450 0.3056911826 -0.0063743535
0.2041725218 0.2858474255 0.0708486065
0.1748145521 0.2597031593 0.0737507716
0.5368130207 0.3987081051 -0.1511498243
0.7819157839 0.2586049438 0.0706311986
0.5527498722 0.5637060404 -0.1414299160
0.9054733515 0.0938998163 0.2799466848
0.6773002148 0.2998442054 0.0252477117
0.7147470713 0.3005809784 0.0288505983
0.7510772943 0.2979905009 0.0408671312
0.7992132902 0.2734597325 0.0760744289
0.6448066235 0.2942812443 0.0326103494
0.7253166437 0.1752885580 0.0189321376
0.6814548373 0.1842699647 0.0199127067
0.7677291632 0.1791334152 0.0322558433
0.7958856821 0.1950300932 0.0475463830
0.8323444128 0.2983863056 0.0956038460
0.6837723255 0.8592526913 -0.0437801816
0.7960238457 0.2478186786 0.0851711184
0.9364504814 0.2703668773 0.2762215137
0.8710449934 0.2617745399 0.1396382898
0.7168783545 0.4808214903 -0.0289470535
0.5652034879 0.6706923246 -0.1198739186
0.5625747442 0.6998015642 -0.1005389094
0.6184173822 0.6820975542 -0.0969432816
0.6555911303 0.6950994134 -0.0683907866
0.6046655774 0.7016409039 -0.0849802792
0.6392608285 0.7063625455 -0.0590205677
0.7146394253 0.7298076749 -0.0198453367
0.5455766916 0.5432658195 -0.2108931690
0.5489201546 0.5003265142 -0.2209296376
0.8410779238 0.1447022259 0.0692436770
0.6247755885 0.3836171925 -0.0224853009
0.6461686492 0.5183773041 -0.1131735891
0.6472941637 0.4941677749 -0.1002357379
0.8341695070 0.4618422687 0.0275257379
0.5429704189 0.4459205866 -0.1935826540
0.7491887808 0.1027692854 0.0063725258
0.8034141064 0.1139767468 0.0376310870
0.8690716028 0.0229257941 0.2070441395
0.5800126791 0.1568900943 -0.0312702656
0.6450497508 0.2066870630 0.0302520338
0.7461227179 0.6925097704 -0.0037271080
0.9144423008 0.6490050554 0.3470954597
0.6159803867 0.5459963083 -0.1006231979
0.5827246904 0.5615898371 -0.1039568633
0.7008201480 0.7168920040 -0.0070476583
0.6905471683 0.7161251307 -0.0186856799
0.8194012642 0.0827992857 0.0579964817
0.6491781473 0.5354715586 -0.0927336141
0.6774403453 0.1124496460 -0.0183662605
0.6800633073 0.0753776729 -0.0237402972
0.7108176947 -0.0611418188 0.0594808012
0.8515262604 0.0549179912 0.1212807894
0.6964542270 0.0079471469 0.0162703339
0.8599694371 0.1225650311 0.1049425229
0.8883584738 0.1135073006 0.1859724522
0.5648532510 0.6866347790 -0.1145841256
0.6115483642 0.6926954389 -0.0927451402
0.6477377415 0.7007606030 -0.0670024082
0.6065368056 0.5540140271 -0.0908572525
0.6954657435 0.7165788412 -0.0129335560
0.6734524965 0.7199065089 -0.0430982858
0.6848562956 0.7155928016 -0.0199398715
0.5936678648 0.5371501446 -0.1530220956
0.6324098110 0.7098774910 -0.0527275205
0.5988553166 0.7073855400 -0.0694126263
0.5597423315 0.7083769441 -0.0835026652
0.5807449222 0.8019016981 -0.0921818167
0.5720655322 0.7541111708 -0.1180300638
0.5685858727 0.7353534698 -0.1165858209
0.5646456480 0.7199428678 -0.1025826558
0.5597830415 0.7085827589 -0.0946467742
0.6323217154 0.7099062800 -0.0604325011
0.6400105357 0.7156039476 -0.0689730570
0.6482972503 0.7236614227 -0.0781253502
0.6557449698 0.7338951826 -0.0727172196
0.6968342066 0.6327735186 -0.0540764593
0.9414483309 0.4460708201 0.4244398177
0.6580902934 0.7128374577 -0.0376257040
0.6651182771 0.7159414291 -0.0430343263
0.5697161555 0.5785377026 -0.1093835831
0.6363981962 0.5603041053 -0.0670510754
0.5760933161 0.5704555511 -0.1068330333
0.6693825722 0.4036158025 -0.0109148966
0.7377032042 0.4243492186 0.0000610644
0.6554265022 0.5114257336 -0.0791992098
0.8094761372 -0.0311143100 0.1284583360
0.7919510007 0.0174393058 0.0653859675
0.7584988475 0.0661412776 0.0147088226
0.6799612641 0.7569005489 -0.0477423333
0.5864136219 0.0961427987 -0.0423132777
0.5936577320 0.0177178085 -0.0122089349
0.6012708545 -0.0693531334 0.0195511281
0.7819513083 0.2890943885 0.0590788536
0.8754421473 0.3245221972 0.1156953648
0.6229467392 0.2869701385 0.0391034409
0.8317414522 0.2100353539 0.0837946832
0.5938780904 0.3589714766 -0.0343820788
0.6189079881 0.5072288513 -0.1510757357
0.9165778756 0.3516956568 0.1577497125
0.8535393476 0.3572276235 0.0756094679
0.8062588573 0.3769927025 0.0362538621
0.7303292155 0.3763967156 0.0198807158
0.6735852957 0.3635241091 0.0115625169
0.6309031248 0.3479535580 0.0031999066
0.5341598988 0.3081626892 -0.0687563941
0.9175267220 0.4372992516 0.1391655803
0.8586090803 0.1995205879 0.1042700037
0.5331741571 0.5655255914 -0.1927831620
0.6256955862 0.4267846346 -0.0446459688
0.9398052692 0.2641429305 0.4121256769
0.5981827378 0.3281059265 0.0001189363
0.6587786674 0.5119460821 -0.0406866372
0.8133165836 0.2469357699 0.0932671204
0.6187562943 0.4776153862 -0.1344038397
0.9335847497 0.5453926325 0.3969280422
0.6221995354 0.2718922496 0.0504576452
0.5812846422 0.4570459723 -0.1713469028
0.8500985503 0.7552296519 0.1209194958
0.8441925645 0.7976509333 0.1910799295
0.9455640316 0.4424994886 0.2807782292
0.8931813836 0.6963291764 0.1777428538
0.9125714302 0.1871524453 0.2431507707
0.6940199137 0.8976765871 -0.0233276598
0.5290645957 0.5748121142 -0.1412467510
0.6653102636 0.4535649121 -0.0331464335
0.9014866352 0.2660489380 0.1788917184
0.7457305193 0.2708686590 0.0453966893
0.7143764496 0.2742943168 0.0354551636
0.6813555956 0.7251839638 -0.0364358537
0.9155333042 0.5194147229 0.1440233141
0.6240083575 0.9569123983 -0.0192212295
0.7397919893 0.8943307996 0.0724703819
0.7886968851 0.8546527624 0.1251670569
0.6831157207 0.2741640210 0.0345067456
0.6528555155 0.2725757360 0.0409920365
0.6325330734 0.2732926309 0.0501552373
0.8821464777 0.1865632832 0.1461121738
0.6571109891 0.2439758480 0.0360303670
0.6894690990 0.2311669588 0.0306812692
0.7218686342 0.2266049385 0.0322680511
0.7545299530 0.2293789983 0.0416425131
0.7752636671 0.2367123067 0.0536926985
0.9278104305 0.1702370346 0.3562770486
0.7669754028 0.2650876939 0.0589147657
0.6558250189 0.6156259775 -0.0747836605
0.6150552034 0.5399413109 -0.1131014079
0.5741794109 0.6112217307 -0.1108984277
0.7986335754 0.8113510609 0.0749319792
0.7482190132 0.8544448018 0.0276699122
0.6238019466 0.9310196638 -0.0672375709
0.8836687207 0.7332762480 0.2724881172
0.6333494186 0.2609193325 0.0450131819
0.5673462152 0.3748670220 -0.0900918171
0.6874096394 0.9299170971 0.0178171694
0.9385666251 0.5329622030 0.2658111453
0.5990086794 0.7075262070 -0.0792104229
0.6067086458 0.7166408896 -0.0882079229
0.6130851507 0.7288829684 -0.0998535305
0.6186305881 0.7451941967 -0.0982550457
0.6360288262 0.7823423147 -0.0748880282
0.6677588224 0.7113066316 -0.0364752822
0.6759467125 0.7090386152 -0.0362215862
0.6830939054 0.7062261701 -0.0361790694
0.7289982438 0.6592977047 -0.0275079422
0.8699027896 0.5463677645 0.0610945486
0.5631847382 0.3308819532 -0.0485515296
0.5886902213 0.2394152582 0.0244384632
0.6145072579 0.2446271032 0.0398217924
0.6582008004 0.7129846215 -0.0333182253
0.8787048459 0.6420180798 0.1094667837
0.5499817133 0.2405339479 -0.0249683075
0.6612885594 0.8203426600 -0.0585574172
0.5362632275 0.3558738530 -0.1137424931
0.6023167968 0.4400349855 -0.0960693434
0.5973100662 0.8455910087 -0.0871210396
0.7521343231 0.7432597876 0.0009867181
0.6950062513 0.5400492549 -0.0340019017
0.7112169266 0.7867905498 -0.0284489226
0.7842801809 0.5215831399 -0.0171654765
0.7344611287 0.5756975412 -0.0302426405
0.8225516081 0.5829445124 0.0093758600
0.6150327921 0.8927447796 -0.0855544358
0.6296319962 0.4607937336 -0.0703829378
0.7867025733 0.7691780925 0.0348037332
0.7358212471 0.8162225485 -0.0007996405
0.7848004699 0.6922324896 0.0131437024
0.9096297622 0.5890525579 0.1505249590
0.8337869048 0.6915609837 0.0514464527
0.9248014688 0.6173712015 0.2395872176
0.7689837217 0.6232520342 -0.0136443386
0.5956233740 0.4006149173 -0.0654313266
0.6060986519 0.5286026001 -0.1602874994
0.6334626675 0.5344315767 -0.1185471788
0.5860454440 0.5023233294 -0.1866017431
0.6173704863 0.1933891475 0.0146599272
0.6789804697 0.1584793627 0.0111793773
0.7350158691 0.1482727528 0.0153322658
0.7821422815 0.1541172862 0.0311608631
0.8151258230 0.1737040281 0.0543117896
0.8377515078 0.2541979551 0.1102693081
0.9460604787 0.3556833267 0.2803970575
0.8135607243 0.3183224797 0.0720868036
0.7747296095 0.3331807852 0.0470763482
0.7231763005 0.3358358741 0.0303784590
0.6741282940 0.3296854496 0.0213404298
0.6355746388 0.3200511932 0.0239720102
0.6082719564 0.3090378642 0.0220536496
0.9412830472 0.3538646102 0.4321101308
0.6335222721 0.5445467830 -0.0994594321
0.5706073642 0.4148964584 -0.1253532767
0.5761268139 0.5349912643 -0.1914091110
0.5548753142 0.5572872162 -0.1764688939
0.5764700174 0.5419183373 -0.1724805385
0.6229637265 0.5570911765 -0.0871895477
0.5466757417 0.5618811250 -0.1872790605
0.5429217815 0.5706806183 -0.1411750466
0.6082274914 0.2747247517 0.0445312522
0.5859460235 0.2867311239 0.0202972367
0.5718963146 0.2961315811 -0.0069862264
0.7872831821 0.2428837717 0.0675277561
0.8130965233 0.2160094678 0.0698080212
0.2797989249 0.2819857299 0.0513153188
0.3179289401 0.2787891030 0.0513153188
0.2775663733 0.2466847003 0.0513153188
0.2411379218 0.2851658463 0.0513153188
0.2818262577 0.3169206679 0.0513153188
0.7079043984 0.2515106201 0.0486585274
0.7489501238 0.2481959015 0.0486585274
0.7036864758 0.2149335444 0.0486585274
0.6669467688 0.2544857264 0.0486585274
0.7123481035 0.2874069214 0.0486585274
